# .PCD v0.7 - Point Cloud Data file format
VERSION 0.7
FIELDS x y z intensity
SIZE 4 4 4 4
TYPE F F F F
COUNT 1 1 1 1
WIDTH 1347
HEIGHT 1
VIEWPOINT 0 0 0 1 0 0 0
POINTS 1347
DATA ascii
11.504753 2.9767094 0.015407255 0
11.516495 3.0798974 0.013794102 0
11.527987 3.1838841 0.012116805 0
11.537544 3.2540965 0.010859828 0
11.33588 3.6295528 0.015909726 0
11.345316 3.7008302 0.014422668 0
11.355009 3.7900586 0.012619595 0
11.364451 3.8799553 0.010774145 0
7.6195192 4.4641728 0.0050025196 0
7.6702867 4.4028788 0.0049996688 0
7.5274982 4.5643234 0.0053168926 0
7.5800743 4.5220356 0.0043443986 0
11.16853 4.1452327 0.015680794 0
7.4651294 4.6463375 0.0045133489 0
11.173504 4.2173095 0.014143204 0
7.3458624 4.7663498 0.0046450053 0
7.4059081 4.7136464 0.0041905856 0
11.18902 4.3295245 0.011328379 0
7.1737843 4.9315724 0.0044056107 0
7.2526984 4.8559031 0.0046513784 0
7.0841703 5.0103278 0.0043231873 0
11.001055 4.5738077 0.015247013 0
6.9954472 5.0902309 0.0038419056 0
11.009684 4.6496792 0.013252791 0
6.7345743 5.2723527 0.0046183541 0
6.7686224 5.268651 0.0032068593 0
6.8758326 5.1793938 0.0040444024 0
11.020155 4.745306 0.010720021 0
6.6176748 5.3650851 0.0035191942 0
6.4360304 5.4679923 0.0040692706 0
6.4909534 5.4626584 0.0020763255 0
10.842804 4.9539919 0.014065195 0
6.2464838 5.5760689 0.0036930146 0
6.2998476 5.5701938 0.0020152181 0
10.856802 5.0539036 0.011073193 0
5.9755206 5.6986165 0.0041111899 0
6.0370202 5.6897106 0.0026645577 0
6.0992675 5.68152 0.0010816109 0
10.686122 5.224968 0.01444073 0
5.6746054 5.8255844 0.0033166427 0
5.7560558 5.8163857 0.0016856586 0
5.8175344 5.8092251 0.00039607333 0
10.695503 5.2869043 0.012450893 0
5.4134426 5.9539056 -0.00054582336 0
10.702566 5.3672395 0.010068619 0
10.541585 5.5028491 0.013424138 0
10.549641 5.5854974 0.010816004 0
10.400885 5.7456522 0.012585613 0
10.409666 5.8112359 0.01031747 0
10.268387 5.9552555 0.011873575 0
10.275377 6.021349 0.009580764 0
10.138783 6.1473269 0.011176178 0
10.143868 6.2137718 0.0088694915 0
9.8945065 6.3959603 0.012673825 0
9.9658451 6.3905635 0.010102447 0
9.7812557 6.5594649 0.011425673 0
9.8471851 6.5509806 0.0092331311 0
9.6132727 6.7413826 0.011248573 0
9.698473 6.7300887 0.0085362438 0
9.4286137 6.9301777 0.010979025 0
9.5110283 6.9187803 0.0084918393 0
9.2322311 7.1309571 0.010160186 0
9.3143978 7.1219482 0.0077233477 0
8.9041348 7.3564768 0.012021159 0
8.9658031 7.3531857 0.010192474 0
9.06357 7.3401961 0.007566886 0
8.6279259 7.5900755 0.010911987 0
8.6867685 7.5857973 0.0093353186 0
8.7843304 7.5765109 0.0067744995 0
8.2494488 7.8521986 0.010452757 0
8.3230295 7.8436494 0.0088175507 0
8.4147835 7.8313046 0.0068136929 0
8.4715996 7.825664 0.0054634046 0
7.7692661 8.1376801 0.0099010058 0
7.839529 8.1281424 0.0086516459 0
7.9469309 8.1156616 0.0065931054 0
8.0366631 8.1040125 0.0048777685 0
7.1045656 8.4597025 0.0090695247 0
7.1730556 8.4520664 0.0081113949 0
7.2587066 8.4413319 0.0069258576 0
7.3624039 8.4286518 0.005414688 0
7.4494905 8.4180088 0.0040944377 0
6.3055954 8.8151646 0.0046411632 0
6.4060259 8.8035345 0.0038409082 0
6.5069461 8.7917576 0.0029726967 0
6.5915966 8.7823038 0.0021724713 0
10.622722 -3.580704 -0.002068989 0
11.039339 -2.9958243 -0.0020643175 0
11.045738 -2.9051096 -0.00024148077 0
11.056323 -2.793788 0.0018507242 0
11.063572 -2.7278585 0.0030261874 0
11.514166 -2.1185372 -0.0015075207 0
11.520436 -2.0302315 -0.00018040836 0
11.528877 -1.9431708 0.0010042936 0
11.534894 -1.8556546 0.0022498667 0
11.544058 -1.7474328 0.0036685839 0
11.55167 -1.6392645 0.0050894767 0
11.559361 -1.5536803 0.0061050951 0
11.567377 -1.4467069 0.0073801428 0
12.088769 -0.46227151 -0.001646854 0
12.095579 -0.37620223 -0.0011742711 0
12.10156 -0.29014266 -0.00070783496 0
12.11056 -0.18302011 -0.00024689734 0
12.118963 -0.075964987 0.0001802668 0
12.125755 0.0095490217 0.00047252327 0
12.134329 0.1163125 0.00077656657 0
12.142884 0.22297782 0.0010237321 0
12.149572 0.30826706 0.0011818036 0
12.157971 0.41481745 0.0013204142 0
12.166382 0.52133429 0.0014013797 0
12.173107 0.60653818 0.0014206097 0
12.18151 0.71305531 0.0013877377 0
12.18993 0.81960446 0.0012972355 0
12.196705 0.9048869 0.0011776686 0
12.205036 1.0115724 0.00097674131 0
12.213412 1.1183571 0.00071707368 0
12.220119 1.2038791 0.00046338886 0
12.228614 1.3109288 8.4534287e-05 0
12.23653 1.418139 -0.00032798201 0
12.244125 1.5040723 -0.00075561553 0
12.250902 1.5901455 -0.0011893064 0
11.890564 2.6442204 0.0082910135 0
11.89945 2.7511342 0.0070632622 0
11.905281 2.836869 0.0060863122 0
11.914731 2.9448962 0.0047141388 0
11.922727 3.0532317 0.0033415481 0
11.930514 3.1406126 0.0021354333 0
11.935837 3.2279239 0.00098995864 0
11.943495 3.3161237 -0.00029733777 0
11.594157 3.9886439 0.0045214519 0
11.597374 4.0549078 0.0033743829 0
11.604416 4.1665277 0.0013311282 0
11.612325 4.2571301 -0.00045089424 0
11.292693 4.9001989 -0.00018243492 0
3.8386145 -6.710649 -0.004608497 0
3.9344163 -6.737412 -0.0057702456 0
4.0312643 -6.7642317 -0.0069878139 0
4.1290722 -6.7910795 -0.008253878 0
3.3555794 -6.5757751 0.00045173243 0
3.4464417 -6.6001086 -0.00034027547 0
3.5384543 -6.626606 -0.0012912303 0
3.6497998 -6.6572165 -0.0024321862 0
3.7437148 -6.683908 -0.0034933537 0
4.7575579 -6.6806841 -0.003526818 0
4.839426 -6.6992435 -0.0047311597 0
4.9453497 -6.7308669 -0.0067088157 0
5.0078878 -6.7445846 -0.0076571293 0
3.1760237 -6.5271244 0.001903574 0
3.2473912 -6.5454025 0.001403206 0
4.257585 -6.543962 0.0042356811 0
4.3544369 -6.5677543 0.002966579 0
4.4529037 -6.5940371 0.0015232973 0
4.5525331 -6.620193 2.996251e-05 0
4.6547775 -6.6517882 -0.0017886497 0
4.7153273 -6.6658068 -0.0026565939 0
4.1612315 -6.5175748 0.0055812206 0
5.1855145 -6.5237875 0.0022292212 0
5.2699518 -6.5431418 0.00076688454 0
5.3585258 -6.5712585 -0.0011811815 0
5.4447088 -6.5903168 -0.0027079433 0
5.5557499 -6.6191721 -0.0049329363 0
5.6463194 -6.6439953 -0.0068440884 0
4.9751148 -6.4662676 0.0061816256 0
5.058918 -6.4901991 0.0045821443 0
5.1204586 -6.5027256 0.0036344938 0
5.9838715 -6.4782801 -0.0021017306 0
6.0548487 -6.4974003 -0.0037419386 0
6.1458526 -6.5131111 -0.005460877 0
5.5974212 -6.3774872 0.0063118488 0
5.685648 -6.3990278 0.004515063 0
5.7748537 -6.4203925 0.0026842803 0
5.8670721 -6.4462037 0.00058071688 0
5.9369278 -6.4654789 -0.0010210574 0
6.2063632 -6.2937331 0.0040392615 0
6.3015666 -6.3168521 0.0018247887 0
6.3978915 -6.3397126 -0.00042584166 0
6.4953332 -6.3622713 -0.0027113818 0
6.5691171 -6.3789859 -0.0044471771 0
6.107748 -6.261075 0.0067013055 0
6.9836798 -6.2517567 -0.0047419146 0
6.5006952 -6.1341643 0.0075883307 0
6.5998774 -6.1592746 0.0050773807 0
6.7003422 -6.1841054 0.0025265515 0
6.8019915 -6.2085433 -5.8375299e-05 0
6.9078217 -6.2375317 -0.0029435344 0
7.118331 -6.0669203 0.0012023933 0
7.1975355 -6.0838413 -0.0008607842 0
7.2838955 -6.1101537 -0.003474351 0
6.9094939 -6.0190191 0.0066932142 0
7.0117955 -6.0408096 0.0040941834 0
7.2298694 -5.8889742 0.0069895908 0
7.30865 -5.9040489 0.0049478114 0
7.3947001 -5.9282393 0.0023646019 0
7.5074854 -5.9553971 -0.00085688382 0
7.5921998 -5.9742723 -0.0032343715 0
7.7673264 -5.8165784 -5.3323805e-05 0
7.8267665 -5.8305502 -0.0018191263 0
7.8866148 -5.8443789 -0.0035962239 0
7.5115328 -5.7612638 0.0072380975 0
7.6239195 -5.7856641 0.0040520057 0
7.7082896 -5.8024654 0.0017013252 0
7.7724953 -5.6313128 0.0074520856 0
7.8310051 -5.644104 0.005726926 0
7.9231596 -5.6675515 0.0028572232 0
8.046237 -5.6967664 -0.000920102 0
8.1455889 -5.5395331 0.0032010376 0
8.2433739 -5.5643544 4.7922134e-05 0
8.327651 -5.571898 -0.0021414012 0
7.9605808 -5.4976563 0.0089045689 0
8.0563116 -5.5232124 0.0058075264 0
8.3322849 -5.486402 0.0010884255 0
8.3364038 -5.4014235 0.0042917877 0
8.5417767 -5.4239168 -0.0013850033 0
8.3456936 -5.3235707 0.0070775673 0
8.5527124 -5.3182545 0.0023685843 0
8.7779961 -5.2960472 -0.0023040175 0
8.5627089 -5.2133861 0.0060784966 0
8.7842398 -5.2161584 0.00049642473 0
8.5696373 -5.1352406 0.0088333115 0
8.7900438 -5.1367021 0.0032735988 0
9.0220461 -5.141912 -0.0028623492 0
8.7953157 -5.0577955 0.0060214698 0
9.0294008 -5.0647306 -0.00028552115 0
8.8001719 -4.979331 0.0087456554 0
9.0374842 -4.9615049 0.0031761453 0
9.0447893 -4.859087 0.0065933019 0
9.2961063 -4.872354 -0.00068764389 0
9.0544853 -4.7604098 0.0097786486 0
9.3046942 -4.7718043 0.0025196522 0
9.312542 -4.6720052 0.0056851357 0
9.5870686 -4.6673164 -0.0019506663 0
9.3229113 -4.5757222 0.0086246058 0
9.5899162 -4.5902481 0.00049575418 0
9.3262806 -4.5005846 0.011029124 0
9.5987005 -4.4927306 0.0034110993 0
9.6068554 -4.3959084 0.0062853247 0
9.8992548 -4.3920608 -0.0023161322 0
9.6144104 -4.2998366 0.009116523 0
9.9066744 -4.3203473 -0.0003163442 0
9.6189098 -4.2276011 0.011257529 0
9.91609 -4.2252746 0.0023164451 0
9.9184761 -4.1261454 0.0052510723 0
9.9268589 -4.0325127 0.0077975094 0
10.243008 -4.0291715 -0.0020523369 0
2.9025378 -3.3565981 -0.0020105401 0
2.9982772 -3.3752632 -0.0034652045 0
3.0952976 -3.3947964 -0.0051482413 0
3.4402907 -3.3622208 -0.0037485026 0
3.4851887 -3.3701692 -0.0047606342 0
9.9347382 -3.939543 0.010302886 0
10.248363 -3.957799 -0.00016844273 0
3.1441715 -3.3026419 0.0026945341 0
3.2089548 -3.3164291 0.0013406603 0
3.3069968 -3.335325 -0.00067055598 0
3.3952506 -3.3518498 -0.0025674012 0
3.5286813 -3.2808571 0.0024210215 0
3.6073442 -3.2952151 0.00045243092 0
3.7105985 -3.3156345 -0.0024092961 0
3.792146 -3.3315969 -0.0047597177 0
9.9403477 -3.8702323 0.012156114 0
10.255135 -3.8632181 0.002307117 0
3.8203564 -3.2423828 0.0022667032 0
3.9142399 -3.260319 -0.00061838143 0
4.009696 -3.2782619 -0.003646994 0
4.2180324 -3.225697 -0.0032955874 0
10.267246 -3.7487502 0.0051230043 0
4.0354605 -3.1921659 0.0029516462 0
4.1079936 -3.2062576 0.00045842864 0
4.2177782 -3.1679878 0.0013457965 0
4.3169737 -3.157233 6.2163919e-05 0
4.4056273 -3.1735315 -0.0032890178 0
10.276636 -3.6338358 0.007985197 0
4.4414282 -3.0965705 0.0019299798 0
4.5304499 -3.1102836 -0.0014165193 0
4.7117062 -3.0628378 -0.0027202368 0
10.281973 -3.5415745 0.010311969 0
10.625044 -3.5335069 -0.00091276318 0
4.5657349 -3.0360487 0.0034460705 0
4.6322269 -3.0496628 0.00055787899 0
4.7452092 -2.9880221 0.0020240005 0
4.8279991 -3.0045569 -0.0017574206 0
10.29005 -3.4518714 0.012442149 0
10.631506 -3.4648876 0.00064566731 0
4.862515 -2.9339802 0.0024850573 0
4.9552112 -2.9324164 -0.00042638928 0
5.0516591 -2.8921576 -0.00072107092 0
10.638789 -3.3732982 0.002739422 0
4.9521523 -2.8747256 0.0039759148 0
5.0873861 -2.8271825 0.0027831458 0
5.1611757 -2.8410723 -0.00089498982 0
10.645769 -3.2823062 0.0047904849 0
5.1822987 -2.7748377 0.0031060092 0
5.2662644 -2.7631001 0.00075685978 0
5.3567939 -2.7393479 -0.0010949001 0
10.652405 -3.1919076 0.0068008006 0
5.3775897 -2.6752601 0.0025580227 0
5.4546766 -2.6508138 0.0010845289 0
5.5273151 -2.6370249 -0.0010114647 0
10.662482 -3.0809455 0.0091474578 0
5.5074649 -2.5763946 0.0039609112 0
5.5814819 -2.5639701 0.0015960857 0
5.6632071 -2.5419495 -0.00053329021 0
10.672079 -2.9707203 0.011438578 0
5.6709037 -2.4829381 0.0030236021 0
5.7464476 -2.4862881 -0.00064037368 0
10.677693 -2.8822632 0.013306677 0
2.7488434 -2.0035503 -0.0039024251 0
2.7788267 -2.008215 -0.0045017563 0
11.064604 -2.6823287 0.0039677173 0
11.068843 -2.6156044 0.0052304566 0
11.077488 -2.5058618 0.0071994513 0
11.086702 -2.3971772 0.0090706944 0
11.093489 -2.3105934 0.010537781 0
11.1001 -2.2244523 0.011965007 0
11.110113 -2.1181931 0.013602361 0
11.1179 -2.0335472 0.014876373 0
11.575342 -1.3402224 0.0085942149 0
11.582659 -1.2556806 0.0094753206 0
11.590923 -1.1501789 0.010552995 0
11.599598 -1.0451934 0.011552542 0
11.607172 -0.94036841 0.012530014 0
11.616138 -0.83625257 0.013388939 0
11.622892 -0.75311381 0.014046863 0
11.630367 -0.64928997 0.014851421 0
11.63902 -0.54601485 0.015548512 0
11.645635 -0.46353334 0.016073108 0
11.813471 1.6609032 0.016546078 0
11.819909 1.7434042 0.016057394 0
11.827566 1.8467603 0.015406944 0
11.836471 1.9504739 0.014649212 0
11.842846 2.0336444 0.014028862 0
11.850344 2.1378827 0.013216034 0
11.859352 2.242605 0.012284018 0
11.867255 2.3476543 0.011331871 0
11.875642 2.4531503 0.010301791 0
11.881681 2.5377951 0.0094588995 0
11.538828 3.2943521 0.016061313 0
11.544418 3.3791761 0.014825493 0
11.551197 3.4856958 0.013236105 0
11.558184 3.5718119 0.011847727 0
11.565063 3.6583931 0.010419667 0
11.573015 3.7671838 0.0085974112 0
11.581724 3.8769386 0.0066765621 0
3.2682869 4.5776172 -0.002424526 0
3.2986307 4.577518 -0.0030223979 0
11.588035 3.9435139 0.0054425821 0
6.2295098 4.5927329 0.0046047643 0
6.304718 4.58425 0.00093220919 0
11.237298 4.2016916 0.014883824 0
6.0826893 4.7106209 0.0055963546 0
6.1538343 4.6867318 0.0032241493 0
6.231102 4.6521697 0.0010811947 0
11.245631 4.2899399 0.013055496 0
5.9699326 4.8286433 0.0042420849 0
6.0422292 4.7924027 0.0027551651 0
6.1118083 4.7673912 0.00065017864 0
11.253447 4.4003124 0.010814063 0
5.7926784 4.9576302 0.0048414003 0
5.8737612 4.9328609 0.0024844557 0
5.9594488 4.8952045 0.00061840937 0
11.2609 4.5114889 0.0085173994 0
5.5810494 5.092392 0.0057639573 0
5.7071524 5.0242195 0.004545182 0
5.7822094 5.0263634 0.00087059289 0
11.268529 4.6018157 0.0065477639 0
5.5018167 5.1649776 0.004302701 0
5.5931225 5.1488938 0.0013871826 0
5.6820545 5.0939913 0.0010720342 0
11.276023 4.6928244 0.0045326576 0
5.2247143 5.3123417 0.0053203199 0
5.2925253 5.3153639 0.0024351943 0
5.3944397 5.2367578 0.0038698576 0
5.4787941 5.2400937 9.3631446e-05 0
10.94388 4.8251286 0.01428479 0
11.283197 4.7844291 0.0024801195 0
5.111443 5.3916254 0.0038349535 0
5.2015171 5.3912067 0.00049131736 0
5.3730903 5.3159094 -0.00083994679 0
10.949975 4.9149961 0.012194954 0
11.28758 4.8532176 0.00095263124 0
4.7254901 5.5497317 0.0049136113 0
4.7993383 5.5522718 0.0024240222 0
4.9017568 5.497242 0.0032913461 0
4.9980431 5.4710631 0.0019988194 0
5.0881596 5.4732566 -0.0013485905 0
10.959179 5.0069585 0.0099096596 0
4.5209217 5.6330762 0.0042586066 0
4.6164589 5.6360607 0.0013783909 0
4.7135501 5.6388083 -0.0016455129 0
4.911068 5.5542107 -0.0013253447 0
10.967984 5.1219544 0.0070967972 0
3.8625398 5.7986598 0.0047384771 0
3.9286857 5.8021154 0.0033884253 0
4.0284853 5.8054099 0.0013810433 0
4.1182427 5.807888 -0.00051184092 0
4.2388849 5.7168317 0.0044408087 0
4.3188243 5.7186613 0.0024766838 0
4.4240136 5.7226472 -0.000381032 0
4.5070581 5.7256212 -0.0027272347 0
10.664147 5.2932148 0.014197551 0
10.973982 5.2369142 0.0043324977 0
3.6323612 5.8898773 6.4494088e-05 0
3.7298465 5.8932929 -0.0013852688 0
3.8287332 5.8973651 -0.0030630454 0
4.1643538 5.8110671 -0.0016899742 0
4.2099447 5.8118739 -0.002700137 0
10.66948 5.3625526 0.012375519 0
10.982133 5.3313961 0.001899451 0
10.676284 5.4556146 0.0099119395 0
10.988041 5.4027305 4.7616661e-05 0
10.682741 5.5494347 0.0074053854 0
10.402802 5.69665 0.013467349 0
10.695987 5.6477456 0.0045127571 0
10.409691 5.7687035 0.01135873 0
10.701604 5.7431269 0.0019227415 0
10.417302 5.8647799 0.008570686 0
10.705525 5.8151231 -4.4748187e-05 0
10.156622 6.012198 0.013370723 0
10.42446 5.9617047 0.0057388544 0
10.165104 6.0869546 0.010998771 0
10.431107 6.0594153 0.002866216 0
10.16999 6.1836929 0.0081015453 0
10.44043 6.1360102 0.00045204163 0
9.9289932 6.3115077 0.012243368 0
10.177896 6.2834978 0.0049808919 0
9.9348965 6.4104943 0.0091023669 0
10.185231 6.3841887 0.0018165335 0
9.7121677 6.5676484 0.011316746 0
9.9437504 6.5128007 0.0057311356 0
9.7196989 6.6459236 0.0086266771 0
9.9519615 6.6160278 0.0023157373 0
9.508976 6.7578478 0.011479862 0
9.7268915 6.7247038 0.0059131607 0
9.9568462 6.6934423 -0.00022850931 0
9.5143948 6.8361216 0.0087600276 0
9.7336254 6.8040957 0.0031715557 0
9.3173113 6.9789824 0.0098175406 0
9.5209732 6.9412713 0.0050971657 0
9.7399921 6.8839846 0.00040690601 0
9.320384 7.0573664 0.0070648417 0
9.5267496 7.0473528 0.001391001 0
8.9639587 7.2110939 0.011753388 0
9.0625219 7.2213202 0.0086641461 0
9.3296804 7.1419749 0.0038975775 0
9.1532583 7.2234344 0.0060616732 0
9.2537327 7.2326102 0.0029160008 0
9.3385162 7.2271504 0.00070594996 0
8.7991695 7.3726192 0.01036692 0
8.8589649 7.3760753 0.0086453184 0
8.9536638 7.384778 0.0057826415 0
9.0798235 7.3943405 0.002012901 0
8.5618353 7.5419326 0.010219034 0
8.6766491 7.5483871 0.0070406944 0
8.7626162 7.5517464 0.0046943426 0
8.8231392 7.5564241 0.0029438734 0
8.8840408 7.5609012 0.0011820346 0
8.9453201 7.5651698 -0.00059105456 0
8.3036709 7.7122493 0.010038339 0
8.3838482 7.7147803 0.0080003254 0
8.4726334 7.725174 0.0054247528 0
8.5882883 7.7343059 0.0022111982 0
8.674921 7.7396584 -0.00016095489 0
8.0076542 7.8909616 0.0098111294 0
8.112114 7.8964353 0.0072180927 0
8.2214336 7.9055138 0.0043339729 0
8.3023176 7.909802 0.0022755116 0
8.3917265 7.922226 -0.00032854453 0
7.6219645 8.0688295 0.010771997 0
7.7238655 8.0780706 0.0082686059 0
7.8269882 8.0868378 0.0057251453 0
7.9312348 8.095046 0.003146328 0
8.0402956 8.1070604 0.00027123094 0
7.2537794 8.2558336 0.009955246 0
8.1174507 8.1092091 -0.0015235394 0
7.3562894 8.2726021 0.007305216 0
7.4539609 8.2805195 0.0050965473 0
7.5526853 8.2879887 0.0028525181 0
7.6524658 8.2949829 0.00057349354 0
7.7279654 8.2999201 -0.0011575967 0
6.7679853 8.4508438 0.009637773 0
6.8585167 8.4582987 0.0078463219 0
6.9499884 8.4654274 0.0060207099 0
7.0451202 8.4764528 0.0039252937 0
7.1171412 8.4845343 0.0023294613 0
6.1672831 8.6361694 0.0095690321 0
6.2538085 8.6466599 0.0079771783 0
6.316556 8.6493778 0.0070328899 0
7.1655135 8.4898138 0.00125283 0
7.238616 8.4975634 -0.00038140267 0
7.330965 8.498805 -0.00209672 0
5.3714952 8.8145647 0.0090185888 0
6.3841372 8.6600151 0.0056324415 0
6.4705706 8.6658859 0.0041756332 0
6.5624647 8.6797619 0.0022368766 0
6.6505761 8.6850662 0.00071549416 0
6.7647777 8.696147 -0.0015007332 0
6.8581266 8.7064571 -0.0034041293 0
4.3999305 8.9785833 0.0053788992 0
4.4732866 8.9854412 0.0048841126 0
5.4707899 8.8254824 0.0076828748 0
5.5701809 8.8337889 0.0064209197 0
5.6715584 8.8443022 0.0049857572 0
5.7740836 8.8545504 0.0034981892 0
5.8800259 8.8697176 0.001689937 0
5.942029 8.8740644 0.0008260794 0
4.5849075 8.9984694 0.0039423201 0
4.6784616 9.0082254 0.0031590685 0
4.7734914 9.0199404 0.002217764 0
4.8882675 9.0327072 0.0010864809 0
4.9852123 9.0443363 3.3844262e-05 0
5.9860744 8.8821344 -3.907457e-05 0
6.0698457 8.8876228 -0.0012381226 0
6.1794267 8.9022427 -0.0032055713 0
6.2433462 8.9059792 -0.0041499771 0
5.0831385 9.0558634 -0.0010727979 0
5.1819754 9.0673122 -0.0022284351 0
5.2818384 9.0786085 -0.003437493 0
5.3826542 9.0897818 -0.0046951249 0
4.7052383 -6.1225495 -0.0022172041 0
4.7901902 -6.1376429 -0.003200907 0
4.8925524 -6.153688 -0.0043358766 0
4.9957037 -6.1708694 -0.0056019705 0
5.0820794 -6.1840863 -0.0066527287 0
5.134129 -6.1919012 -0.0073013972 0
5.6336355 -6.0111752 -0.0012386907 0
5.7218132 -6.0251713 -0.0027203755 0
5.8104382 -6.0381989 -0.0042012339 0
5.8824549 -6.0513086 -0.0055701486 0
6.2517805 -5.8655815 -0.00028588995 0
6.342886 -5.8792844 -0.0021490492 0
6.4350295 -5.8936815 -0.0041056406 0
6.7110658 -5.7113376 0.00091764843 0
6.7867985 -5.7244067 -0.00093928538 0
6.8800125 -5.7344584 -0.002965522 0
7.1380839 -5.564651 0.00075063482 0
7.2155547 -5.5755877 -0.0012371475 0
7.4547744 -5.4127874 0.0017731017 0
7.5363398 -5.4278264 -0.00065648183 0
7.7181802 -5.2675962 0.0028565726 0
7.7791862 -5.2757797 0.0010833503 0
7.8439436 -5.290071 -0.0010742284 0
8.0082026 -5.1362638 0.0020357375 0
8.0718565 -5.1457419 3.2715034e-05 0
8.2407618 -5.0032887 0.0021129302 0
8.3069458 -5.0140243 -0.00010332558 0
8.4391251 -4.8782501 0.0022982699 0
8.5750809 -4.7512941 0.0039810562 0
8.6396017 -4.7555709 0.0019464074 0
8.6651754 -4.7050252 0.0033599413 0
8.8335552 -4.5951061 0.0029908931 0
9.0127106 -4.4970856 0.0015289886 0
9.0237923 -4.4308662 0.0038768151 0
9.2041979 -4.3329129 0.0020244056 0
9.218256 -4.272222 0.0039700149 0
9.4162016 -4.1412563 0.0024500559 0
9.4259005 -4.07795 0.0045436728 0
4.2982717 -3.0760527 -0.0029876505 0
4.3890748 -3.0911212 -0.0044355355 0
4.4601526 -3.1025102 -0.0056322515 0
9.6425428 -3.9161296 0.0030467566 0
4.7173338 -3.0469618 -0.0023527653 0
4.7896261 -3.0591009 -0.0040794974 0
5.0245972 -3.003922 -0.002160548 0
5.0879064 -3.0142372 -0.0039945729 0
9.6528559 -3.855628 0.0049059722 0
5.2592525 -2.9525068 -0.0016672167 0
5.3023062 -2.9595556 -0.0030981919 0
5.4629192 -2.900337 -0.0015007749 0
5.5063219 -2.9056704 -0.0029528039 0
9.8873348 -3.6621151 0.003280933 0
5.6456184 -2.8468647 -0.0015157075 0
5.6907682 -2.854934 -0.0033826474 0
9.9020042 -3.5851045 0.0054308749 0
5.7956705 -2.7905598 -0.0010252595 0
5.8184986 -2.7942624 -0.0019972292 0
5.9486585 -2.741173 -0.0016828554 0
6.0671506 -2.6866224 -0.001223387 0
10.147911 -3.3761096 0.0031218752 0
6.1755962 -2.6344404 -0.00091053313 0
10.160321 -3.2997246 0.0051576719 0
6.2840095 -2.5822027 -0.00086818542 0
6.3706584 -2.5316031 -0.00035164412 0
10.169397 -3.242785 0.0066630077 0
6.4453135 -2.4804738 0.00051401136 0
6.4713073 -2.4856133 -0.00096184947 0
6.5470791 -2.4362547 -0.00046908343 0
6.6227164 -2.3870063 -0.00013212487 0
10.437396 -3.0250874 0.0027800184 0
6.6874399 -2.3394415 0.00042983517 0
6.7545395 -2.2956791 0.00048069376 0
10.44929 -2.950844 0.0045580906 0
4.2312298 -1.7730343 -0.0045937044 0
4.2599654 -1.7781348 -0.0052340752 0
6.8541589 -2.228487 0.00047310675 0
10.464961 -2.8594999 0.0066648698 0
10.760556 -2.5514984 0.0030098064 0
10.772006 -2.4796009 0.0044765831 0
10.788218 -2.391552 0.0061398246 0
10.798577 -2.3394608 0.0070675267 0
11.142358 -1.8381419 0.003970773 0
11.160649 -1.7351319 0.0054372605 0
11.177458 -1.6322262 0.0069004293 0
11.192188 -1.5473576 0.008016102 0
11.636099 -0.58310246 0.003710825 0
11.646621 -0.5159325 0.0041268216 0
11.663189 -0.41561133 0.0046522282 0
11.680143 -0.31562471 0.0050848871 0
11.696981 -0.21580064 0.0054516913 0
11.713762 -0.11611998 0.005750299 0
11.730523 -0.016558528 0.0059793447 0
11.747219 0.082930207 0.0061414447 0
11.763863 0.18237662 0.0062365648 0
11.78055 0.28179801 0.0062599713 0
11.797258 0.38123512 0.0062131169 0
11.813931 0.48073125 0.0060993289 0
11.830567 0.58031833 0.0059186774 0
11.847252 0.68002355 0.0056669824 0
11.863884 0.7798897 0.0053494032 0
11.880478 0.87994659 0.0049653221 0
11.897559 0.98019493 0.0044877958 0
11.909575 1.0471289 0.0041018683 0
11.804512 2.1035099 0.0088963229 0
11.818275 2.1885672 0.0078217769 0
11.83597 2.2913613 0.0064078132 0
11.852282 2.3947377 0.0049913689 0
11.690842 2.9808598 0.0083501432 0
11.698053 3.0335064 0.0074471673 0
11.711443 3.1220646 0.0058269762 0
11.724077 3.1937981 0.0043947622 0
5.2956657 4.58465 -0.0030680359 0
5.3245039 4.5801134 -0.0037084371 0
7.9246593 4.1609316 0.0020091713 0
11.545099 3.5814357 0.008217277 0
7.803195 4.3202281 0.0020284608 0
7.8523722 4.256959 0.0020547069 0
11.560085 3.6729445 0.0061543612 0
7.7020178 4.4575424 0.001186064 0
7.7574949 4.3863115 0.0014937003 0
11.573086 3.7470543 0.0044106916 0
7.6201887 4.5325274 0.0021986151 0
7.6464572 4.5289292 0.00072168745 0
7.5008092 4.681325 0.00087611703 0
7.5662575 4.6052227 0.0013624048 0
11.390653 4.0402861 0.0084205214 0
7.4153104 4.7660685 0.00086670718 0
11.40069 4.0971208 0.0069402009 0
7.2354846 4.9409904 0.00016168645 0
7.3182755 4.8531399 0.0011025455 0
11.41387 4.1734219 0.0049412097 0
7.0955286 5.0394902 0.0013380842 0
7.1296849 5.0336185 -0.00011663488 0
6.9833379 5.1397281 0.00040201913 0
7.0286713 5.1326513 -0.0014653353 0
11.249513 4.4512506 0.0073691974 0
6.8279696 5.2498393 0.00045749615 0
6.8707585 5.2407451 -0.00099608768 0
11.260796 4.5288963 0.00525461 0
6.6413703 5.3669291 0.00072813383 0
6.6953697 5.3582048 -0.0011002813 0
6.160049 5.6326804 2.3284578e-05 0
6.4471769 5.4906735 -0.00011979253 0
6.5104175 5.4798055 -0.0019546775 0
11.09989 4.7688074 0.0075335829 0
5.7837157 5.7955937 -0.00085602643 0
5.8745136 5.7802672 -0.0023048904 0
5.9454541 5.7678862 -0.0035025827 0
6.1605725 5.633719 -8.1492937e-05 0
6.2429261 5.6194487 -0.0019952811 0
11.112188 4.8489766 0.0051588793 0
10.960108 5.07267 0.006749453 0
10.971605 5.1357327 0.0046849786 0
10.827114 5.3241377 0.0062837461 0
10.833649 5.3861589 0.0043655192 0
10.694983 5.5376248 0.0062792818 0
10.706134 5.6039076 0.0039611943 0
10.568655 5.7550278 0.0054850169 0
10.445286 5.9139204 0.0059180907 0
10.375237 5.987112 0.0065640481 0
10.437625 5.9701104 0.0045275167 0
10.288076 6.1515632 0.0049504829 0
10.141247 6.3345304 0.0048399027 0
10.207365 6.3231325 0.0026215352 0
9.9646816 6.5361781 0.0048423568 0
10.02796 6.5243821 0.0028394554 0
9.7734432 6.7468877 0.0045655738 0
9.8594742 6.7352548 0.0018174741 0
9.5314026 6.9782362 0.0047541237 0
9.613472 6.9658937 0.0023233686 0
9.2813892 7.2251887 0.0038271947 0
9.3582401 7.2102928 0.0018372387 0
9.0926733 7.4700332 0.00020852685 0
8.9253101 7.5032096 0.0040965471 0
9.001215 7.4908981 0.002238668 0
8.4870882 7.808701 0.0040981616 0
8.541152 7.7988992 0.0030014371 0
8.6318026 7.7821712 0.0011367598 0
8.7236576 7.7657547 -0.00082078204 0
7.9862156 8.1409597 0.0024713017 0
8.0918713 8.1227217 0.00068142358 0
8.1799679 8.1061802 -0.00080193533 0
8.2523613 8.0950956 -0.0021700612 0
7.1452665 8.5497265 0.0014548454 0
7.2472115 8.5328627 0.00032701669 0
7.3492899 8.514698 -0.00080995029 0
7.452466 8.4973135 -0.0020754079 0
7.5384912 8.4816704 -0.003127445 0
7.5903006 8.4721413 -0.0037791794 0
4.2871037 -6.0555034 0.0015277287 0
4.3866463 -6.0717554 0.00072869833 0
4.4866838 -6.0880003 -0.00013816799 0
4.5872488 -6.1042175 -0.0010722715 0
4.6546502 -6.1160936 -0.0017866343 0
5.151763 -5.9326625 0.0060877395 0
5.2365379 -5.947206 0.0048677111 0
5.3214178 -5.9589052 0.003750765 0
5.4073181 -5.9732943 0.0024376158 0
5.5109568 -5.9892097 0.00086721987 0
5.5808744 -6.0017772 -0.00032242108 0
5.8776541 -5.8053975 0.0070444192 0
5.947526 -5.815412 0.0057993475 0
6.0537415 -5.8327608 0.0037453156 0
6.1610456 -5.8498192 0.0016254638 0
6.4162731 -5.6628566 0.0077172653 0
6.4889984 -5.674758 0.0060855281 0
6.5801468 -5.6879911 0.004086507 0
6.6547356 -5.7013922 0.0022870572 0
6.850873 -5.5151138 0.0082874252 0
6.9082813 -5.5270681 0.0067142393 0
7.0040474 -5.5447493 0.0041624773 0
7.0803728 -5.5562491 0.0022246228 0
7.1796241 -5.3668036 0.0094994484 0
7.2394123 -5.3804383 0.0076769004 0
7.3363853 -5.3946981 0.0050595673 0
7.4157662 -5.4082427 0.0027971326 0
7.5167804 -5.236517 0.0087734535 0
7.5748663 -5.2423573 0.0072318092 0
7.6560221 -5.2560325 0.0047938609 0
7.7986746 -5.1018338 0.0086563174 0
7.9019842 -5.1178207 0.0054593734 0
8.0272694 -4.9715815 0.0090129348 0
8.1116676 -4.9840236 0.0063121314 0
8.1750145 -4.992281 0.0043145153 0
8.2596931 -4.8467035 0.0085484432 0
8.3489666 -4.8627815 0.0054371916 0
8.3913383 -4.7178593 0.01059963 0
8.4608469 -4.7321768 0.0080370484 0
8.5266953 -4.7401686 0.0058355085 0
8.6747456 -4.6613498 0.0049338783 0
8.6842928 -4.5901942 0.0076593915 0
8.6977644 -4.5253072 0.009989378 0
8.8544006 -4.485549 0.006905714 0
8.8701096 -4.3986173 0.01000218 0
9.037899 -4.3431153 0.0069808485 0
9.0512257 -4.2560263 0.010052674 0
9.2241669 -4.2282581 0.0055089667 0
9.2326927 -4.1626959 0.00779839 0
9.252449 -4.0613675 0.011080878 0
9.4399319 -3.9958122 0.007185203 0
4.2281189 -3.0651419 -0.0020373492 0
4.2481146 -3.0679467 -0.0022705717 0
4.5244508 -3.0161777 0.0016306962 0
4.5951338 -3.0280287 0.00019291672 0
4.666275 -3.0398738 -0.0013232459 0
9.4577913 -3.8952708 0.010351006 0
4.511035 -3.0131633 0.0019523004 0
4.5949936 -3.0269692 0.00029375637 0
4.6661806 -3.0387468 -0.0012282658 0
4.8382807 -2.9749131 0.0027155443 0
4.899714 -2.9833047 0.0012706486 0
4.9721928 -2.9949255 -0.0006538881 0
9.4705048 -3.8144512 0.012923019 0
9.6612301 -3.8171337 0.0060139801 0
5.1320992 -2.9319427 0.0023456099 0
5.2060208 -2.944077 2.7023489e-05 0
9.6724911 -3.735744 0.0085629821 0
5.3437839 -2.8804536 0.0027672281 0
5.4085331 -2.8915658 0.00044952729 0
9.6926003 -3.6186876 0.01203472 0
5.5463991 -2.8317561 0.0022622766 0
5.6007791 -2.8387167 0.00032411912 0
9.9091129 -3.5467935 0.0064948061 0
5.6841469 -2.7750263 0.0034007197 0
5.7400169 -2.7837727 0.0011231478 0
9.917984 -3.4663022 0.0089332219 0
5.8102112 -2.7167749 0.0045811674 0
5.8683348 -2.7291846 0.0018049235 0
5.9845443 -2.6722338 0.0027062707 0
6.0322647 -2.682116 0.00032349816 0
9.9379559 -3.3530507 0.012027319 0
6.0916767 -2.6200581 0.0032244376 0
6.1386824 -2.6267574 0.0010287878 0
9.950757 -3.2781491 0.01405425 0
6.1993265 -2.5692341 0.0033437239 0
6.2928948 -2.5342784 0.0024998887 0
10.180646 -3.1880603 0.0079912581 0
6.3944621 -2.4712186 0.0033151214 0
10.19729 -3.0961733 0.010272587 0
6.4561882 -2.4193809 0.0046962677 0
6.5261407 -2.401402 0.0030400404 0
6.5964603 -2.3827071 0.0013607941 0
10.210958 -3.0031319 0.012665728 0
6.6451068 -2.3198955 0.0038026359 0
6.7149534 -2.2904167 0.0027300583 0
10.223877 -2.9310565 0.014390847 0
6.7789059 -2.2341652 0.0037466772 0
6.8330946 -2.1989517 0.0036291527 0
10.472247 -2.8037391 0.0080222292 0
10.484016 -2.7514548 0.0090707652 0
10.498575 -2.6616464 0.011070334 0
10.516427 -2.5553639 0.013350389 0
10.53087 -2.4674945 0.015198889 0
10.804608 -2.2851892 0.0082228892 0
10.819988 -2.1984215 0.0097804703 0
10.836947 -2.094409 0.011652164 0
10.854806 -1.9918904 0.013378531 0
10.87224 -1.8900843 0.015038755 0
10.886913 -1.8059897 0.01634806 0
11.20566 -1.4624705 0.009139712 0
11.222881 -1.361657 0.010356424 0
11.239849 -1.261366 0.011506188 0
11.256613 -1.1615803 0.012587843 0
11.273201 -1.0622745 0.013600833 0
11.28966 -0.96342862 0.014544021 0
11.306694 -0.86523998 0.015380511 0
11.322879 -0.76718926 0.016188104 0
11.339585 -0.66968536 0.016894318 0
11.35561 -0.5723241 0.017564176 0
11.640839 1.1282848 0.017974779 0
11.657452 1.2255626 0.017352229 0
11.673479 1.323198 0.016692776 0
11.690166 1.4211829 0.015932849 0
11.706108 1.5195762 0.015143411 0
11.722809 1.6184052 0.014247587 0
11.739523 1.7177132 0.013282847 0
11.756228 1.8175331 0.012249717 0
11.772918 1.9179004 0.011147976 0
11.78954 2.0188451 0.0099795703 0
11.600252 2.4475331 0.017375914 0
11.613835 2.5318465 0.01610638 0
11.630575 2.6338105 0.014495003 0
11.647146 2.736588 0.012817826 0
11.665055 2.8404875 0.01099593 0
11.678828 2.9275632 0.0094800638 0
11.479471 3.1891642 0.016565152 0
11.494498 3.2769837 0.014758203 0
11.510258 3.365736 0.012859749 0
11.524042 3.4548573 0.011003255 0
7.8553658 4.190834 0.0052899485 0
7.8950872 4.1398377 0.0051562148 0
11.533788 3.5263155 0.009548462 0
7.7567863 4.3155279 0.0053964839 0
7.8132281 4.2648845 0.0043043648 0
11.340483 3.7276654 0.015997412 0
7.6105533 4.4711871 0.006352664 0
7.6708527 4.4313936 0.0046813376 0
7.7312536 4.3907919 0.0029880719 0
11.35178 3.8000522 0.014307132 0
7.5690827 4.5403419 0.0049998197 0
11.369211 3.8925164 0.011958559 0
7.4164925 4.6966457 0.0050899363 0
7.4935865 4.6330895 0.0042221192 0
11.383463 3.9848633 0.009720834 0
7.331254 4.7798028 0.0050028181 0
7.3778949 4.7708268 0.0028059101 0
11.195454 4.1449795 0.015846599 0
7.096591 4.9630151 0.0064272387 0
7.1556044 4.9558129 0.0036520055 0
7.2469406 4.8640666 0.0045179818 0
11.207792 4.2200093 0.013855204 0
6.996347 5.0591927 0.0052847518 0
7.0413342 5.0518847 0.00340052 0
11.225864 4.3336563 0.010814877 0
6.884573 5.1577601 0.0041820547 0
6.9382734 5.1466293 0.0022421447 0
11.243755 4.4126987 0.0084136492 0
6.7088132 5.2698488 0.0047266097 0
6.7736726 5.2592611 0.0024086402 0
11.062454 4.5512552 0.014006567 0
6.5253916 5.3875456 0.0043451041 0
6.5888824 5.3771496 0.0023264377 0
11.079214 4.6491818 0.011126294 0
6.2615008 5.5239348 0.0047591627 0
6.322341 5.511858 0.0033127938 0
6.3946795 5.4992371 0.0013872762 0
10.916311 4.808835 0.01500397 0
11.086507 4.707305 0.0095167551 0
5.713809 5.8081355 9.4452873e-05 0
5.7336369 5.8042741 -0.00013914926 0
5.9678731 5.6663785 0.0039591123 0
6.0486031 5.6529412 0.0023299574 0
6.1095285 5.6425996 0.0010404182 0
10.930658 4.8894396 0.01247027 0
10.946588 4.9903908 0.0093514277 0
10.790663 5.1135006 0.013294455 0
10.805043 5.2158098 0.010060058 0
10.663885 5.3632569 0.0123726 0
10.818382 5.2806277 0.0078007807 0
10.679682 5.4499922 0.0093426742 0
10.539114 5.5571933 0.012403605 0
10.552632 5.6445742 0.0093476037 0
10.42307 5.7770896 0.010931297 0
10.440081 5.8694706 0.0074716373 0
10.190536 6.0153499 0.013184363 0
10.26095 6.0062475 0.01062194 0
10.325844 5.992353 0.0084178131 0
10.108066 6.1801834 0.011202892 0
10.197727 6.166286 0.0080923429 0
9.9289627 6.3740964 0.011745313 0
10.012864 6.3583784 0.0090414956 0
10.075454 6.3455296 0.0070433696 0
9.7552309 6.5718551 0.011468329 0
9.8364315 6.5562034 0.0089857951 0
9.9016895 6.5475903 0.0068323202 0
9.5325603 6.7912164 0.011669143 0
9.5894117 6.7778139 0.010124734 0
9.6706142 6.7642841 0.00768732 0
9.2561293 7.0243893 0.012484688 0
9.317131 7.0178061 0.01066298 0
9.4135208 6.9997077 0.0080426494 0
9.493021 6.9866471 0.0057797427 0
8.9935198 7.271884 0.011369213 0
9.0517454 7.264514 0.0097944867 0
9.1481047 7.2500372 0.0072421455 0
9.2240562 7.2360463 0.0053025545 0
8.7379875 7.5322895 0.0085963421 0
8.7751856 7.5266485 0.0077124014 0
8.6306305 7.5534039 0.01090042 0
8.6859703 7.5453038 0.0096032117 0
8.8125162 7.5209212 0.0068204412 0
8.8687801 7.5121584 0.0054663797 0
8.1675901 7.8638597 0.01033826 0
8.2369757 7.8505974 0.0090896394 0
8.3431139 7.8323998 0.0070341676 0
8.431715 7.8159738 0.005321872 0
7.5224094 8.2209396 0.0094977356 0
7.6073623 8.2070951 0.0082757827 0
7.6914639 8.1904812 0.0071582603 0
7.77742 8.1761017 0.0058443574 0
7.8806667 8.1574116 0.004270887 0
6.7444782 8.6190834 0.0050603328 0
6.8439493 8.6020203 0.0042605978 0
6.9438925 8.5848036 0.0033922263 0
7.0443192 8.5673742 0.0024572453 0
9.6408272 -8.2101612 -0.0095744208 0
9.4663076 -8.1729727 -0.0063010901 0
9.5269213 -8.189846 -0.0076076537 0
9.5794048 -8.1934252 -0.0082475394 0
9.8350067 -8.0062399 -0.0024065003 0
9.9282627 -8.0287762 -0.0044048354 0
10.02265 -8.0510874 -0.0064300448 0
10.118014 -8.0732965 -0.0084811822 0
9.7426767 -7.9835777 -0.00043160468 0
10.321993 -7.8786726 -0.0025296584 0
10.418783 -7.8980217 -0.0045926645 0
10.494306 -7.9239521 -0.0066780224 0
10.028172 -7.8065224 0.0041804835 0
10.12179 -7.8264518 0.0021953434 0
10.21628 -7.8461404 0.00019063801 0
10.493291 -7.6805906 0.0035998449 0
10.590002 -7.6972313 0.0015637949 0
10.698626 -7.7264643 -0.0011890531 0
10.924223 -7.5550108 0.0024970248 0
10.847383 -7.5333915 0.0045511797 0
9.9972029 8.0408373 0.0074809343 0
10.071235 8.0706987 0.0054363683 0
9.6291428 8.1485662 0.0065798908 0
9.7235031 8.1756907 0.00454963 0
9.8283033 8.2165813 0.0018098652 0
9.153059 8.2231112 0.0071983337 0
9.2439556 8.2531195 0.0052224249 0
9.3357735 8.2830324 0.0032245517 0
8.8500004 8.3680897 0.002644293 0
9.4373207 8.3268862 0.00051857531 0
9.531435 8.3566647 -0.001535289 0
9.6036892 8.3906679 -0.0036095679 0
8.9392929 8.4006262 0.00068202615 0
9.0295439 8.4331865 -0.0013060048 0
9.1209745 8.4656982 -0.0033234432 0
9.2133589 8.4981623 -0.0053645074 0
8.5256405 8.514555 -0.0025143251 0
8.6130352 8.5496111 -0.0044566765 0
8.6648197 8.5588827 -0.0050942451 0
8.7240562 8.5822086 -0.0064136162 0
8.2524824 -8.3916931 -0.0092777759 0
7.1400909 -8.3578911 -0.0071341246 0
7.2294245 -8.3817472 -0.0081497878 0
7.2974987 -8.4010191 -0.0090012811 0
7.9759712 -8.313323 -0.0047436357 0
8.0487309 -8.3308954 -0.0057612807 0
8.1485271 -8.358243 -0.0073467568 0
8.8264713 -8.2691631 -0.0060181245 0
8.9337664 -8.2934504 -0.0078218952 0
9.0205822 -8.3211794 -0.009685263 0
6.8308516 -8.2615833 -0.0031910613 0
6.9184093 -8.2904329 -0.0043452531 0
7.0273752 -8.3206053 -0.0055383742 0
7.6370487 -8.2116365 0.00070329756 0
7.730154 -8.2351885 -0.00053489208 0
7.852859 -8.276123 -0.0027029701 0
7.9243937 -8.2937126 -0.0036831796 0
8.5030518 -8.1768169 0.00010090321 0
8.6093454 -8.2076216 -0.0018949509 0
8.7171116 -8.2383938 -0.0039336681 0
9.3168621 -8.1306734 -0.0030907989 0
9.4061604 -8.1560688 -0.0050069615 0
6.5565562 -8.1811705 -0.00031774119 0
6.6177864 -8.1951952 -0.00072589517 0
6.7236252 -8.2282934 -0.0019318387 0
7.3601804 -8.1299391 0.0047492944 0
7.4295197 -8.1530237 0.0036328174 0
7.5194035 -8.1747866 0.0025663897 0
7.5879421 -8.1924009 0.0016801991 0
8.2210951 -8.0975399 0.0050931014 0
8.3479214 -8.1336088 0.0028626323 0
8.4250526 -8.1552114 0.0014951229 0
9.0300636 -8.0520477 0.002782166 0
9.1412315 -8.0797739 0.00066045672 0
9.2284813 -8.1052399 -0.0011995807 0
6.3103766 -8.1033363 0.0022393409 0
6.4116678 -8.1343403 0.0012772568 0
6.4932222 -8.1576557 0.00054937601 0
7.2273855 -8.0945387 0.0063854717 0
7.2935624 -8.1122837 0.0055733807 0
8.9204807 -8.0241909 0.0048612282 0
9.5230293 -7.9175277 0.0047186166 0
9.6212473 -7.9531412 0.0021588206 0
9.6817341 -7.9683876 0.0008694157 0
6.2106123 -8.0739861 0.0030771736 0
9.9570656 -7.7804179 0.0061502755 0
5.6647854 -4.8175497 -0.0036790036 0
5.7006154 -4.8252316 -0.004504377 0
5.4463353 -4.7825623 -7.5640157e-05 0
5.5375991 -4.7978587 -0.0015560742 0
5.6183114 -4.8107519 -0.0029061101 0
5.7270217 -4.7260437 0.0037899464 0
5.8330188 -4.7434769 0.0015906878 0
5.9408827 -4.7605915 -0.00075554848 0
6.0387287 -4.7761378 -0.003030384 0
6.1311083 -4.723321 0.00028654747 0
6.2214785 -4.7038283 0.00071391836 0
6.3236613 -4.7201567 -0.0021134652 0
6.4016681 -4.7325363 -0.0043498129 0
6.6316309 -4.6696672 -0.0034807958 0
6.097868 -4.6869082 0.0037207901 0
6.4327745 -4.6406569 0.0025535077 0
6.5374365 -4.6553078 -0.00051495433 0
6.6474314 -4.5781898 0.0034425259 0
6.7293921 -4.5906544 0.00070982799 0
6.8259301 -4.6037316 -0.0024732649 0
6.8817205 -4.6107368 -0.0043158606 0
7.0402145 -4.5432873 -0.003091529 0
7.0848389 -4.5503983 -0.0048068985 0
6.8543282 -4.5169554 0.0035886876 0
6.925539 -4.5279856 0.00099545717 0
7.0251932 -4.4972515 0.0007811524 0
7.127553 -4.4679356 0.00023668259 0
7.214798 -4.4764996 -0.002862297 0
7.414319 -4.4199443 -0.0047089271 0
7.2300558 -4.3962646 0.0026345737 0
7.3220472 -4.4092879 -0.0010815263 0
7.4034328 -4.3552585 0.00030582398 0
7.5069623 -4.3494501 -0.0026215576 0
7.5195408 -4.2701545 0.002597671 0
7.6009626 -4.2808561 -0.00093397871 0
7.6890445 -4.2326488 -0.00067212433 0
7.7803316 -4.2234769 -0.0033382773 0
7.6292591 -4.2046814 0.003402438 0
7.7950578 -4.1499109 0.0011242442 0
7.8992157 -4.1386905 -0.0020834133 0
7.9879241 -4.1014538 -0.0030614808 0
7.8794608 -4.0867033 0.0021621808 0
8.0025921 -4.0299969 0.0010369197 0
8.0959997 -4.042666 -0.0035781562 0
8.1854382 -3.9802127 -0.0032994524 0
8.0914717 -3.969346 0.001325421 0
8.176199 -3.9286294 0.00034357607 0
8.2612057 -3.920172 -0.0027638301 0
8.2288713 -3.8555419 0.002658166 0
8.2934999 -3.840543 0.00074277818 0
8.3761044 -3.8218582 -0.0017998964 0
8.4070501 -3.7445016 0.0014568716 0
8.4970455 -3.7437932 -0.0026462749 0
5.1043038 -3.4089589 -0.0018003928 0
5.1357002 -3.4114902 -0.0023953915 0
4.7371197 3.3152132 -0.0005295286 0
4.7680535 3.3211479 -0.0011228714 0
7.983778 4.0084767 0.0029146671 0
8.0733681 4.0176291 -0.001192525 0
7.7945395 4.0994291 0.004156895 0
7.8604116 4.091548 0.002237983 0
7.944562 4.0819716 -0.00031024963 0
7.6455526 4.1975861 0.0028653145 0
7.7342134 4.1663394 0.0018695965 0
7.8196454 4.1671996 -0.0012402534 0
7.4220219 4.2911625 0.0037418939 0
7.5506034 4.2482085 0.0025969893 0
7.6420712 4.270968 -0.0020106733 0
7.7377787 4.2186222 -0.0017535836 0
7.1604671 4.3812108 0.005020123 0
7.3312402 4.3448105 0.0027255304 0
7.4360018 4.3450003 -0.00048426539 0
7.5282354 4.3176384 -0.0014740825 0
7.0442624 4.4343371 0.0042389482 0
7.1240349 4.4538412 0.00071294606 0
7.216846 4.415514 0.00095817074 0
7.308588 4.4163351 -0.0017092563 0
6.7427645 4.528182 0.0043169335 0
6.8327913 4.5511432 0.00060797855 0
6.9195781 4.506299 0.0019763559 0
7.0231237 4.511795 -0.00095079839 0
6.3561206 4.6072392 0.005309213 0
6.4257126 4.6259685 0.0027207993 0
6.5281219 4.6062679 0.002496969 0
6.6330638 4.5882645 0.0019443035 0
6.7188587 4.6062789 -0.0011497401 0
6.9233551 4.571785 -0.0030135959 0
5.58564 4.6938143 0.0054896716 0
5.9235973 4.6843066 0.0043118522 0
6.0260439 4.7102695 0.0012509786 0
6.1437807 4.645575 0.005182486 0
6.2239032 4.666904 0.0024550743 0
6.3184428 4.6904135 -0.00072086602 0
6.3731399 4.7034526 -0.002559673 0
6.5380383 4.6536613 -0.0013574399 0
6.581624 4.6655884 -0.0030692369 0
4.9275537 4.7179475 0.0017167069 0
5.0166106 4.7430973 0.0002435036 0
5.0954409 4.7647009 -0.0010999311 0
5.2127309 4.6923327 0.0055662673 0
5.3162007 4.7212062 0.0033756513 0
5.4215617 4.7499661 0.0010380801 0
5.5171356 4.7760806 -0.001229316 0
5.6147175 4.7336287 0.0020701941 0
5.7066746 4.724093 0.0024919771 0
5.8064747 4.7514567 -0.0003275685 0
5.8826709 4.7722583 -0.0025577247 0
6.1181183 4.734807 -0.0017080531 0
5.1408992 4.7765193 -0.0018693283 0
5.1756816 4.7880664 -0.0026918314 0
9.0852432 8.1894646 0.0091545954 0
5.328918 8.0732889 0.0061171222 0
5.4248953 8.1133127 0.0052931421 0
5.5222149 8.1551828 0.0043439232 0
5.6007481 8.1872425 0.0036264509 0
6.3374619 8.2044907 0.0094517544 0
6.4013042 8.22929 0.0086500496 0
8.0282326 8.3189306 0.0079357177 0
8.638814 8.2784557 0.0077678114 0
8.7326021 8.3246098 0.0052208528 0
8.7910728 8.3463535 0.0039384216 0
5.6611485 8.2175179 0.0027693734 0
5.72049 8.2381287 0.0023677684 0
5.8220997 8.2825584 0.001176361 0
6.4656067 8.2540979 0.0078338422 0
6.5320225 8.2845984 0.0067274608 0
6.6190066 8.3160181 0.005671028 0
6.6852379 8.3410482 0.0047902986 0
7.3249798 8.3156738 0.0081815533 0
7.4471264 8.3653336 0.0059675574 0
7.5214601 8.3952341 0.0046084449 0
8.1341362 8.3585587 0.005869247 0
8.2416296 8.3982286 0.0037601069 0
8.325592 8.4330473 0.00191129 0
5.9250689 8.3273296 -6.8213791e-05 0
6.0089674 8.3655462 -0.0012098253 0
6.1140056 8.4074078 -0.0023894496 0
6.7319603 8.3655186 0.0038215928 0
6.8219419 8.3990364 0.0025957339 0
6.9394603 8.4530773 0.00044628978 0
7.0086565 8.4783535 -0.00052593276 0
7.5966368 8.4251804 0.0032251105 0
7.6989603 8.4674072 0.0012416244 0
7.8027411 8.5097399 -0.0007834509 0
8.4106712 8.4679298 3.259629e-05 0
6.2219958 8.456749 -0.0039690025 0
6.3082037 8.4901953 -0.0049738958 0
6.3737793 8.5167675 -0.0058167875 0
7.0577946 8.5034666 -0.001577951 0
7.1282129 8.528862 -0.0025876462 0
7.2244511 8.5669451 -0.0041621253 0
7.9081059 8.5522385 -0.0028542429 0
8.0121021 8.5880127 -0.0046442598 0
8.0954094 8.6250896 -0.0064980462 0
7.324151 8.6115179 -0.0060785115 0
5.3644571 -6.127192 -0.0027112872 0
5.4672189 -6.1353326 -0.0038062402 0
5.570797 -6.1444659 -0.0050273584 0
5.6748333 -6.1522493 -0.0062513622 0
6.2815814 -5.9442177 -0.0018991816 0
6.3884773 -5.9528937 -0.0037068983 0
6.4600463 -5.9579444 -0.004914884 0
6.850503 -5.7495561 -0.00038035354 0
6.9053087 -5.7534895 -0.0014833207 0
6.9791393 -5.7594543 -0.0030277339 0
7.3348165 -5.5666924 -0.00021825824 0
7.4086399 -5.5678973 -0.0017461348 0
7.729609 -5.3850899 8.3112158e-05 0
8.0560541 -5.2152457 0.00025484338 0
8.3091173 -5.0520067 0.0011582579 0
8.5458851 -4.8952103 0.0016189022 0
8.7687788 -4.7473559 0.0015571401 0
9.2539272 -4.3381629 0.0032177838 0
9.4292936 -4.1839428 0.0033819904 0
9.6050739 -4.0296888 0.0031588548 0
4.693326 -3.1201379 -0.0032333941 0
4.7645192 -3.126858 -0.004364552 0
4.83603 -3.1330423 -0.0055322754 0
10.009641 -3.5855131 0.0043241382 0
5.0987144 -3.0606818 -0.0024540368 0
5.1609707 -3.0659482 -0.0038625509 0
5.4123626 -2.9971731 -0.0025660242 0
5.4545298 -2.9997401 -0.0036715791 0
5.6639094 -2.9298742 -0.0027030287 0
5.830596 -2.8607707 -0.0014843896 0
5.8629174 -2.8615973 -0.0024882669 0
10.228819 -3.3338077 0.0042844764 0
6.0312414 -2.7966969 -0.0023888315 0
6.1653156 -2.7284198 -0.0014314048 0
6.3024397 -2.6671457 -0.0015712453 0
6.416399 -2.604265 -0.0010887154 0
10.468704 -3.0130525 0.0047571277 0
6.5204964 -2.5444622 -0.00075152935 0
6.6245413 -2.4846344 -0.0006856136 0
6.7070646 -2.4280012 -0.00014953734 0
6.7918739 -2.3751025 -0.00018481142 0
6.8767691 -2.3221076 -0.00040816423 0
10.731459 -2.6266384 0.0049961042 0
4.520184 -1.8255771 -0.0046996875 0
4.5491514 -1.8286121 -0.0053266347 0
11.017191 -2.1362476 0.0052975956 0
11.343404 -1.4230274 0.0060378616 0
11.746538 -0.1335395 0.0061187078 0
11.752478 -0.066560388 0.0065291766 0
11.758543 0.00028133392 0.006906407 0
11.894318 1.3594891 0.0071870233 0
11.901552 1.4262099 0.0068395259 0
11.908979 1.4930403 0.0064567029 0
11.768806 2.8367701 0.0069236704 0
11.59009 3.6004033 0.00649013 0
5.1601329 4.5809932 -0.0033630268 0
5.1891265 4.5782361 -0.003989541 0
11.406946 4.1375885 0.0064044921 0
7.5682755 4.6015401 0.001036542 0
7.4955502 4.6702843 0.0012842065 0
7.3531828 4.8107328 0.00083667459 0
7.4228721 4.7389007 0.0013458701 0
7.2630296 4.8899536 0.00079979724 0
7.0735536 5.0533347 3.9788429e-05 0
7.172821 4.9691606 0.00049164123 0
11.225765 4.5683026 0.0063376031 0
6.9512548 5.1405053 0.00021171733 0
6.8333435 5.2339525 -0.00071247434 0
6.6493464 5.3364477 0.00022611697 0
6.6811914 5.3308654 -0.00077872956 0
11.054084 4.9301615 0.0060054548 0
6.266367 5.5528555 -0.00078060781 0
6.3082108 5.54704 -0.0018876265 0
6.4996219 5.4371381 -0.00095581892 0
5.9714918 5.6771407 -0.00062938384 0
6.0335569 5.6699896 -0.002038213 0
5.5858941 5.8156013 -0.001367391 0
5.6570058 5.8081064 -0.0024986509 0
5.7283235 5.8000245 -0.0036666999 0
10.88898 5.2202077 0.0061600944 0
10.580246 5.7355847 0.0051953928 0
10.438444 5.9215407 0.0054898011 0
10.297016 6.1073618 0.0053984113 0
9.9023876 6.6043763 0.0039273584 0
9.7131233 6.7933531 0.0040611709 0
9.5120649 6.9938717 0.0036743027 0
9.2962856 7.2039022 0.0028498108 0
9.0099106 7.4349456 0.0027609374 0
8.6588478 7.6910024 0.002551964 0
8.7314444 7.6775818 0.0010216921 0
8.2203016 7.9660139 0.002485543 0
8.2747974 7.9590287 0.0013820727 0
8.3483438 7.950273 -0.0001628357 0
7.7011623 8.2693214 0.0010708673 0
7.8076525 8.2566833 -0.00073746126 0
7.8788004 8.2474775 -0.0019461843 0
6.8384185 8.6300278 0.00037319097 0
6.9407406 8.6176548 -0.00072103972 0
7.0440683 8.6061211 -0.0019425678 0
7.1475897 8.5931988 -0.0031689876 0
4.8587904 -6.084125 0.0018139351 0
4.9589019 -6.0926552 0.0010541293 0
5.0594769 -6.1011438 0.00022670941 0
5.1605453 -6.1095543 -0.00066687958 0
5.2621398 -6.1178737 -0.0016267919 0
5.7100706 -5.8958554 0.0066641564 0
5.7951698 -5.9038196 0.0054801786 0
5.8974442 -5.9108338 0.0041284701 0
6.0007582 -5.9189248 0.0026433447 0
6.0876703 -5.9264307 0.0013076263 0
6.1756144 -5.9352736 -0.00015846826 0
6.4386482 -5.7141776 0.0076283803 0
6.5093451 -5.7212334 0.006275855 0
6.5977936 -5.7280035 0.0046428712 0
6.7051487 -5.7367659 0.0025729067 0
6.7959805 -5.7454767 0.00070609804 0
6.9454689 -5.5319309 0.0087128421 0
7.0181851 -5.5382333 0.0071155527 0
7.1278334 -5.5464077 0.0047191293 0
7.2401934 -5.557672 0.0020542839 0
7.3655195 -5.3526835 0.0094165327 0
7.4422703 -5.3626122 0.0073567047 0
7.5567513 -5.3732796 0.0044284663 0
7.6524143 -5.3800864 0.0020306469 0
7.680531 -5.1809559 0.010724718 0
7.7594814 -5.1909366 0.0084496886 0
7.8766022 -5.2005324 0.0052639917 0
7.9761772 -5.209516 0.0024666702 0
8.0047026 -5.026546 0.01011353 0
8.0828905 -5.0304022 0.0079732072 0
8.1840382 -5.0390477 0.0050009894 0
8.2445011 -5.0426879 0.0032702116 0
8.2526894 -4.8692517 0.010777632 0
8.3144779 -4.874886 0.0088703306 0
8.3981581 -4.8829975 0.0062408582 0
8.4825649 -4.8905683 0.0035849658 0
8.4692364 -4.7238274 0.011212294 0
8.5335197 -4.7306843 0.0090927593 0
8.6158228 -4.7335725 0.0066086142 0
8.7029457 -4.7416716 0.0037315988 0
8.7330647 -4.5869541 0.0093972553 0
8.8461447 -4.6004076 0.0054291356 0
8.9120083 -4.6045451 0.0032503717 0
8.8564081 -4.4520445 0.011285864 0
8.9236164 -4.4581437 0.0089503499 0
9.0155315 -4.4675436 0.0056847255 0
8.9672279 -4.4601307 0.0075061326 0
9.0803337 -4.4421411 0.0046623009 0
9.0990353 -4.4648919 0.003146607 0
9.1125031 -4.3001595 0.0093577355 0
9.107748 -4.3712606 0.006654772 0
9.2596321 -4.2939625 0.0047813677 0
9.1215572 -4.2350087 0.011667497 0
9.2677832 -4.2279806 0.0071123997 0
9.2779675 -4.140523 0.01019769 0
9.4337511 -4.1396937 0.0049360115 0
9.2851372 -4.0753593 0.012491921 0
9.4420462 -4.0517831 0.0080174683 0
9.4515152 -3.9427905 0.011828654 0
9.6124992 -3.9660261 0.0052772127 0
9.6209717 -3.8808401 0.008138489 0
9.630825 -3.7755299 0.011654209 0
9.8034191 -3.7807367 0.0051627271 0
